459.007507 -91.302277 -200.000000
441.614410 -182.922684 -200.000000
416.566284 -278.340698 -200.000000
417.900085 -417.900116 -200.000000
372.787628 -557.916077 -200.000000
303.085266 -731.712585 -200.000000
203.869431 -1024.920654 -200.000000
-0.000051 -1156.000000 -200.000000
-221.037369 -1111.229736 -200.000000
-436.259125 -1053.222656 -200.000000
-651.683899 -975.313843 -200.000000
-887.419006 -887.419006 -200.000000
-925.425659 -618.349670 -200.000000
-857.360229 -355.130249 -200.000000
-791.493713 -157.437897 -200.000000
-717.000000 -0.000000 -200.000000
-682.626526 135.782867 -200.000000
-638.400757 264.434265 -200.000000
-592.837830 396.121582 -200.000000
-552.957520 552.957520 -200.000000
-472.234711 706.749146 -200.000000
-379.621948 916.488525 -200.000000
-233.328064 1173.019165 -200.000000
0.000060 1372.000000 -200.000000
258.689819 1300.521240 -200.000000
509.734314 1230.607544 -200.000000
749.464233 1121.652466 -200.000000
707.106750 707.106812 -200.000000
669.333008 447.234039 -200.000000
642.096252 265.964996 -200.000000
605.144531 120.370735 -200.000000
540.000000 0.000000 -200.000000
422.718445 -84.083931 -400.000000
406.506989 -168.380722 -400.000000
384.970428 -257.229004 -400.000000
351.432068 -351.432068 -400.000000
338.342285 -506.364990 -400.000000
275.532074 -665.193237 -400.000000
186.896561 -939.592285 -400.000000
-0.000051 -1159.000000 -400.000000
-221.427551 -1113.191284 -400.000000
-433.963013 -1047.679443 -400.000000
-653.906189 -978.639709 -400.000000
-876.105286 -876.105347 -400.000000
-889.672485 -594.460144 -400.000000
-844.425903 -349.772675 -400.000000
-791.493713 -157.437897 -400.000000
-745.000000 -0.000000 -400.000000
-670.857117 133.441788 -400.000000
-618.999268 256.397919 -400.000000
-560.410522 374.454346 -400.000000
-485.075256 485.075256 -400.000000
-419.455536 627.759521 -400.000000
-320.688721 774.211060 -400.000000
-194.505081 977.842896 -400.000000
0.000053 1206.000000 -400.000000
270.200134 1358.387573 -400.000000
510.882385 1233.379150 -400.000000
740.019592 1107.517456 -400.000000
958.129639 958.129700 -400.000000
1054.303467 704.463074 -400.000000
849.969177 352.068756 -400.000000
766.974060 152.560638 -400.000000
689.000000 0.000000 -400.000000
468.815369 -93.253174 -600.000000
448.081573 -185.601471 -600.000000
418.229218 -279.451813 -600.000000
387.494507 -387.494537 -600.000000
327.786438 -490.567078 -600.000000
260.607422 -629.161987 -600.000000
156.852646 -788.551331 -600.000000
-0.000051 -1156.000000 -600.000000
-225.719543 -1134.768555 -600.000000
-430.901550 -1040.288330 -600.000000
-624.460938 -934.571838 -600.000000
-844.285461 -844.285522 -600.000000
-942.055054 -629.461060 -600.000000
-806.546814 -334.082642 -600.000000
-714.011658 -142.025757 -600.000000
-618.000000 -0.000000 -600.000000
-571.797791 113.737663 -600.000000
-518.296387 214.685410 -600.000000
-469.780334 313.897186 -600.000000
-425.678284 425.678284 -600.000000
-357.231659 534.634949 -600.000000
-272.087921 656.878357 -600.000000
-165.826797 833.667480 -600.000000
0.000058 1327.000000 -600.000000
277.223389 1393.695923 -600.000000
528.103149 1274.953735 -600.000000
767.242493 1148.259521 -600.000000
987.828125 987.828186 -600.000000
978.639709 653.906189 -600.000000
880.457214 364.697327 -600.000000
812.090210 161.534790 -600.000000
684.000000 0.000000 -600.000000
502.162048 -99.886246 -800.000000
476.721832 -197.464661 -800.000000
433.195679 -289.452087 -800.000000
398.808228 -398.808228 -800.000000
342.786835 -513.016724 -800.000000
260.607422 -629.161987 -800.000000
153.145935 -769.916443 -800.000000
-0.000038 -876.000000 -800.000000
-230.986984 -1161.249756 -800.000000
-438.172516 -1057.842041 -800.000000
-633.350098 -947.875366 -800.000000
-867.619995 -867.620056 -800.000000
-933.740356 -623.905396 -800.000000
-834.263184 -345.563141 -800.000000
-750.300720 -149.244095 -800.000000
-689.000000 -0.000000 -800.000000
-612.010010 121.736366 -800.000000
-549.708313 227.696655 -800.000000
-495.555878 331.119873 -800.000000
-430.628021 430.628052 -800.000000
-368.898651 552.095825 -800.000000
-285.864532 690.138000 -800.000000
-173.825516 873.879700 -800.000000
0.000048 1107.000000 -800.000000
268.834503 1351.522095 -800.000000
512.795776 1237.998535 -800.000000
745.019714 1115.000732 -800.000000
969.443359 969.443420 -800.000000
1081.741943 722.796875 -800.000000
874.913940 362.401215 -800.000000
781.685852 155.486984 -800.000000
677.000000 0.000000 -800.000000
490.392639 -97.545166 -1000.000000
474.874084 -196.699295 -1000.000000
452.319458 -302.230194 -1000.000000
408.707703 -408.707733 -1000.000000
387.232452 -579.534302 -1000.000000
312.652374 -754.809570 -1000.000000
200.162704 -1006.285706 -1000.000000
-0.000052 -1192.000000 -1000.000000
-224.158813 -1126.922241 -1000.000000
-437.789856 -1056.918213 -1000.000000
-651.683899 -975.313843 -1000.000000
-864.791565 -864.791626 -1000.000000
-853.919312 -570.570618 -1000.000000
-772.363281 -319.923370 -1000.000000
-720.877197 -143.391388 -1000.000000
-672.000000 -0.000000 -1000.000000
-611.029236 121.541275 -1000.000000
-569.109802 235.733002 -1000.000000
-525.488770 351.120392 -1000.000000
-467.397583 467.397583 -1000.000000
-419.455536 627.759521 -1000.000000
-334.082642 806.546814 -1000.000000
-208.161407 1046.497925 -1000.000000
0.000060 1365.000000 -1000.000000
273.321594 1374.080200 -1000.000000
530.399231 1280.497070 -1000.000000
782.798462 1171.540649 -1000.000000
986.413940 986.414001 -1000.000000
820.660522 548.347839 -1000.000000
752.961792 311.886993 -1000.000000
699.299927 139.099411 -1000.000000
645.000000 0.000000 -1000.000000
489.411865 -97.350075 -1200.000000
461.015900 -190.959045 -1200.000000
439.015961 -293.341095 -1200.000000
404.465057 -404.465088 -1200.000000
346.675842 -518.837036 -1200.000000
265.199615 -640.248535 -1200.000000
180.848755 -909.187927 -1200.000000
-0.000050 -1139.000000 -1200.000000
-231.572250 -1164.192139 -1200.000000
-435.876434 -1052.298828 -1200.000000
-633.905640 -948.706787 -1200.000000
-830.143372 -830.143372 -1200.000000
-994.437683 -664.461975 -1200.000000
-908.173584 -376.177826 -1200.000000
-725.781128 -144.366837 -1200.000000
-672.000000 -0.000000 -1200.000000
-627.702576 124.857811 -1200.000000
-568.185913 235.350311 -1200.000000
-508.859406 340.008972 -1200.000000
-452.548340 452.548340 -1200.000000
-380.010040 568.725220 -1200.000000
-290.456726 701.224548 -1200.000000
-194.895264 979.804504 -1200.000000
0.000055 1255.000000 -1200.000000
275.077393 1382.907227 -1200.000000
523.128235 1262.943359 -1200.000000
761.686829 1139.944824 -1200.000000
980.757080 980.757141 -1200.000000
1036.011108 692.240540 -1200.000000
849.045288 351.686096 -1200.000000
711.069336 141.440491 -1200.000000
653.000000 0.000000 -1200.000000
