-97.780365 -146.338654 0.000000
-106.773125 -106.773125 0.000000
-123.888969 -82.779968 0.000000
-133.038651 -55.106415 0.000000
-151.040939 -30.043911 0.000000
-145.000000 -0.000000 0.000000
-93.174599 18.533581 0.000000
-77.605881 32.145409 0.000000
-59.865810 40.001057 0.000000
-45.961941 45.961941 0.000000
-36.112064 54.045525 0.000000
-6.888302 16.629831 0.000000
-12.095602 60.808685 0.000000
0.000004 82.000000 0.000000
19.899216 100.040100 0.000000
45.539330 109.941666 0.000000
58.334877 87.304306 0.000000
70.003571 70.003571 0.000000
79.821083 53.334743 0.000000
93.311829 38.651028 0.000000
99.059311 19.704123 0.000000
122.000000 0.000000 0.000000
150.060150 -29.848820 -200.000000
119.180458 -49.366165 -200.000000
103.102234 -68.890709 -200.000000
89.802559 -89.802567 -200.000000
75.557556 -113.079865 -200.000000
52.810314 -127.495377 -200.000000
33.360451 -167.714279 -200.000000
-0.000009 -195.000000 -200.000000
-36.286808 -182.426056 -200.000000
-61.994717 -149.668488 -200.000000
-79.446548 -118.900154 -200.000000
-97.580734 -97.580734 -200.000000
-114.742805 -76.668694 -200.000000
-130.267014 -53.958366 -200.000000
-151.040939 -30.043911 -200.000000
-144.000000 -0.000000 -200.000000
-97.097740 19.313942 -200.000000
-74.834244 30.997358 -200.000000
-70.674919 47.223469 -200.000000
-60.104076 60.104076 -200.000000
-50.001324 74.832268 -200.000000
-8.036352 19.401470 -200.000000
-2.341084 11.769423 -200.000000
0.000003 72.000000 -200.000000
13.266145 66.693398 -200.000000
33.676144 81.301399 -200.000000
58.334877 87.304306 -200.000000
82.024384 82.024391 -200.000000
81.484024 54.445885 -200.000000
88.692436 36.737610 -200.000000
94.155388 18.728672 -200.000000
95.000000 0.000000 -200.000000
141.233078 -28.093008 -400.000000
139.505814 -57.785198 -400.000000
106.428108 -71.112991 -400.000000
91.923882 -91.923882 -400.000000
70.001854 -104.765167 -400.000000
48.983479 -118.256577 -400.000000
27.117559 -136.329147 -400.000000
-0.000007 -159.000000 -400.000000
-37.067169 -186.349197 -400.000000
-76.536682 -184.775909 -400.000000
-96.669220 -144.675705 -400.000000
-105.358910 -105.358910 -400.000000
-125.551910 -83.891106 -400.000000
-129.343140 -53.575684 -400.000000
-139.271515 -27.702826 -400.000000
-147.000000 -0.000000 -400.000000
-141.233078 28.093008 -400.000000
-96.083473 39.799080 -400.000000
-74.000793 49.445751 -400.000000
-55.154327 55.154331 -400.000000
-17.222677 25.775558 -400.000000
-6.505618 15.705952 -400.000000
-13.461235 67.674187 -400.000000
0.000003 73.000000 -400.000000
15.607228 78.462822 -400.000000
34.824192 84.073036 -400.000000
66.112862 98.944885 -400.000000
78.488853 78.488853 -400.000000
82.315491 55.001453 -400.000000
89.616318 37.120293 -400.000000
92.193817 18.338491 -400.000000
96.000000 0.000000 -400.000000
146.137009 -29.068459 -600.000000
133.962524 -55.489098 -600.000000
109.753990 -73.335274 -600.000000
89.802559 -89.802567 -600.000000
72.224129 -108.091049 -600.000000
51.279579 -123.799858 -600.000000
25.751926 -129.463654 -600.000000
-0.000007 -169.000000 -600.000000
-38.432800 -193.214706 -600.000000
-75.388634 -182.004272 -600.000000
-92.780228 -138.855423 -600.000000
-107.480225 -107.480232 -600.000000
-115.574280 -77.224266 -600.000000
-126.571495 -52.427631 -600.000000
-143.194656 -28.483189 -600.000000
-155.000000 -0.000000 -600.000000
-120.636589 23.996111 -600.000000
-93.311829 38.651028 -600.000000
-70.674919 47.223469 -600.000000
-60.104076 60.104076 -600.000000
-11.666975 17.460861 -600.000000
-6.122935 14.782072 -600.000000
-13.266145 66.693398 -600.000000
0.000003 67.000000 -600.000000
13.071054 65.712616 -600.000000
26.787840 64.671570 -600.000000
41.667770 62.360222 -600.000000
68.589355 68.589355 -600.000000
94.787537 63.335007 -600.000000
96.083473 39.799080 -600.000000
96.116959 19.118853 -600.000000
94.000000 0.000000 -600.000000
116.713448 -23.215750 -800.000000
145.049088 -60.081299 -800.000000
123.888969 -82.779968 -800.000000
90.509666 -90.509666 -800.000000
72.224129 -108.091049 -800.000000
49.366161 -119.180458 -800.000000
26.532290 -133.386795 -800.000000
-0.000006 -142.000000 -800.000000
-35.311356 -177.522141 -800.000000
-81.128883 -195.862457 -800.000000
-105.558350 -157.979218 -800.000000
-115.965508 -115.965515 -800.000000
-123.057503 -82.224396 -800.000000
-131.190887 -54.341049 -800.000000
-137.309937 -27.312645 -800.000000
-143.000000 -0.000000 -800.000000
-152.021713 30.239000 -800.000000
-122.875977 50.896896 -800.000000
-85.641373 57.223736 -800.000000
-57.982754 57.982758 -800.000000
-15.555967 23.281149 -800.000000
-10.332453 24.944748 -800.000000
-13.656325 68.654968 -800.000000
0.000003 65.000000 -800.000000
13.071054 65.712616 -800.000000
27.935890 67.443207 -800.000000
43.334480 64.854630 -800.000000
68.589355 68.589355 -800.000000
94.787537 63.335007 -800.000000
93.311829 38.651028 -800.000000
91.213028 18.143400 -800.000000
100.000000 0.000000 -800.000000
153.002502 -30.434092 -1000.000000
138.581924 -57.402515 -1000.000000
108.922516 -72.779701 -1000.000000
86.267029 -86.267029 -1000.000000
71.668564 -107.259583 -1000.000000
48.983479 -118.256577 -1000.000000
26.922470 -135.348373 -1000.000000
-0.000006 -143.000000 -1000.000000
-35.701534 -179.483704 -1000.000000
-78.450104 -189.395309 -1000.000000
-99.447075 -148.833054 -1000.000000
-112.429977 -112.429977 -1000.000000
-122.226036 -81.668823 -1000.000000
-128.419250 -53.192997 -1000.000000
-136.329147 -27.117556 -1000.000000
-153.000000 -0.000000 -1000.000000
-153.983292 30.629181 -1000.000000
-105.322266 43.625912 -1000.000000
-83.146957 55.557022 -1000.000000
-64.346718 64.346718 -1000.000000
-25.556231 38.247601 -1000.000000
-5.740252 13.858193 -1000.000000
-10.144698 51.000835 -1000.000000
0.000003 67.000000 -1000.000000
6.828163 34.327484 -1000.000000
23.343689 56.356651 -1000.000000
42.778908 64.023163 -1000.000000
69.296463 69.296463 -1000.000000
94.787537 63.335007 -1000.000000
96.083473 39.799080 -1000.000000
95.136169 18.923761 -1000.000000
94.000000 0.000000 -1000.000000
150.060150 -29.848820 -1200.000000
139.505814 -57.785198 -1200.000000
110.585457 -73.890839 -1200.000000
91.216774 -91.216774 -1200.000000
72.224129 -108.091049 -1200.000000
50.131531 -121.028221 -1200.000000
25.556837 -128.482864 -1200.000000
-0.000007 -159.000000 -1200.000000
-35.896626 -180.464493 -1200.000000
-83.424988 -201.405731 -1200.000000
-107.225060 -160.473633 -1200.000000
-108.894440 -108.894447 -1200.000000
-126.383385 -84.446678 -1200.000000
-129.343140 -53.575684 -1200.000000
-137.309937 -27.312645 -1200.000000
-151.000000 -0.000000 -1200.000000
-145.156219 28.873369 -1200.000000
-103.474510 42.860546 -1200.000000
-93.124596 62.223866 -1200.000000
-84.852814 84.852814 -1200.000000
-45.556759 68.180504 -1200.000000
-26.787840 64.671570 -1200.000000
-13.266145 66.693398 -1200.000000
0.000003 64.000000 -1200.000000
12.875963 64.731827 -1200.000000
26.787840 64.671570 -1200.000000
33.889786 50.719646 -1200.000000
62.932503 62.932507 -1200.000000
93.956062 62.779438 -1200.000000
98.855110 40.947128 -1200.000000
95.136169 18.923761 -1200.000000
93.000000 0.000000 -1200.000000
155.944855 -31.019361 -1400.000000
127.495377 -52.810314 -1400.000000
109.753990 -73.335274 -1400.000000
86.974129 -86.974136 -1400.000000
72.224129 -108.091049 -1400.000000
49.366161 -119.180458 -1400.000000
27.312651 -137.309937 -1400.000000
-0.000008 -172.000000 -1400.000000
-39.993523 -201.060974 -1400.000000
-77.302055 -186.623672 -1400.000000
-95.558083 -143.012772 -1400.000000
-104.651802 -104.651810 -1400.000000
-116.405746 -77.779831 -1400.000000
-129.343140 -53.575684 -1400.000000
-142.213867 -28.288097 -1400.000000
-154.000000 -0.000000 -1400.000000
-125.540512 24.971561 -1400.000000
-106.246147 44.008595 -1400.000000
-90.630188 60.557156 -1400.000000
-79.903061 79.903069 -1400.000000
-41.112198 61.528751 -1400.000000
-25.639790 61.899929 -1400.000000
-13.071054 65.712616 -1400.000000
0.000003 64.000000 -1400.000000
12.875963 64.731827 -1400.000000
27.553207 66.519325 -1400.000000
31.111935 46.562298 -1400.000000
62.932503 62.932507 -1400.000000
93.956062 62.779438 -1400.000000
93.311829 38.651028 -1400.000000
94.155388 18.728672 -1400.000000
93.000000 0.000000 -1400.000000
153.002502 -30.434092 -1600.000000
125.647614 -52.044949 -1600.000000
105.596642 -70.557419 -1600.000000
86.974129 -86.974136 -1600.000000
71.112991 -106.428108 -1600.000000
55.489098 -133.962540 -1600.000000
32.775181 -164.771927 -1600.000000
-0.000009 -214.000000 -1600.000000
-41.554245 -208.907257 -1600.000000
-68.500336 -165.374435 -1600.000000
-81.668823 -122.226028 -1600.000000
-103.237587 -103.237595 -1600.000000
-113.079865 -75.557549 -1600.000000
-127.495377 -52.810314 -1600.000000
-144.175430 -28.678278 -1600.000000
-151.000000 -0.000000 -1600.000000
-151.040939 30.043911 -1600.000000
-144.125214 59.698616 -1600.000000
-109.753990 73.335274 -1600.000000
-94.752304 94.752312 -1600.000000
-51.112461 76.495201 -1600.000000
-31.380041 75.758125 -1600.000000
-12.680873 63.751041 -1600.000000
0.000003 67.000000 -1600.000000
12.680873 63.751041 -1600.000000
25.257107 60.976048 -1600.000000
32.778645 49.056705 -1600.000000
50.911686 50.911690 -1600.000000
68.180511 45.556759 -1600.000000
87.768555 36.354927 -1600.000000
88.270676 17.558130 -1600.000000
89.000000 0.000000 -1600.000000
155.944855 -31.019361 -1800.000000
133.962524 -55.489098 -1800.000000
110.585457 -73.890839 -1800.000000
87.681236 -87.681244 -1800.000000
68.890709 -103.102234 -1800.000000
50.514214 -121.952095 -1800.000000
31.019367 -155.944855 -1800.000000
-0.000008 -185.000000 -1800.000000
-42.529697 -213.811188 -1800.000000
-73.857903 -178.308746 -1800.000000
-85.557816 -128.046326 -1800.000000
-101.823372 -101.823380 -1800.000000
-113.911339 -76.113121 -1800.000000
-124.723740 -51.662266 -1800.000000
-141.233078 -28.093008 -1800.000000
-151.000000 -0.000000 -1800.000000
-148.098572 29.458639 -1800.000000
-126.571495 52.427631 -1800.000000
-103.933701 69.446281 -1800.000000
-89.095451 89.095459 -1800.000000
-49.445751 74.000793 -1800.000000
-27.935890 67.443207 -1800.000000
-12.680873 63.751041 -1800.000000
0.000003 65.000000 -1800.000000
11.900512 59.827900 -1800.000000
24.109056 58.204411 -1800.000000
34.445354 51.551117 -1800.000000
44.547726 44.547729 -1800.000000
57.371403 38.334347 -1800.000000
75.758118 31.380043 -1800.000000
78.462822 15.607226 -1800.000000
88.000000 0.000000 -1800.000000
155.944855 -31.019361 -2000.000000
135.810287 -56.254467 -2000.000000
107.259583 -71.668564 -2000.000000
87.681236 -87.681244 -2000.000000
68.890709 -103.102234 -2000.000000
49.748844 -120.104340 -2000.000000
30.043915 -151.040939 -2000.000000
-0.000008 -180.000000 -2000.000000
-42.334606 -212.830399 -2000.000000
-75.388634 -182.004272 -2000.000000
-86.113388 -128.877792 -2000.000000
-103.237587 -103.237595 -2000.000000
-113.079865 -75.557549 -2000.000000
-127.495377 -52.810314 -2000.000000
-140.252289 -27.897917 -2000.000000
-150.000000 -0.000000 -2000.000000
-147.117798 29.263550 -2000.000000
-139.505814 57.785198 -2000.000000
-113.911339 76.113121 -2000.000000
-98.994949 98.994949 -2000.000000
-56.668167 84.809898 -2000.000000
-30.231991 72.986481 -2000.000000
-13.266145 66.693398 -2000.000000
0.000003 68.000000 -2000.000000
12.485783 62.770256 -2000.000000
23.343689 56.356651 -2000.000000
34.445354 51.551117 -2000.000000
33.234016 33.234020 -2000.000000
58.202873 38.889915 -2000.000000
64.671570 26.787842 -2000.000000
75.520470 15.021955 -2000.000000
81.000000 0.000000 -2000.000000
157.906433 -31.409542 -2200.000000
139.505814 -57.785198 -2200.000000
108.091049 -72.224129 -2200.000000
89.095451 -89.095459 -2200.000000
71.112991 -106.428108 -2200.000000
49.366161 -119.180458 -2200.000000
29.458645 -148.098572 -2200.000000
-0.000007 -171.000000 -2200.000000
-40.968975 -205.964905 -2200.000000
-69.648384 -168.146072 -2200.000000
-88.335670 -132.203674 -2200.000000
-103.944695 -103.944702 -2200.000000
-113.911339 -76.113121 -2200.000000
-126.571495 -52.427631 -2200.000000
-139.271515 -27.702826 -2200.000000
-146.000000 -0.000000 -2200.000000
-146.137009 29.068459 -2200.000000
-141.353561 58.550568 -2200.000000
-118.068687 78.890976 -2200.000000
-98.994949 98.994949 -2200.000000
-61.112728 91.461655 -2200.000000
-30.997358 74.834244 -2200.000000
-14.241596 71.597328 -2200.000000
0.000003 67.000000 -2200.000000
12.095602 60.808685 -2200.000000
26.022472 62.823807 -2200.000000
37.223206 55.708462 -2200.000000
44.547726 44.547729 -2200.000000
47.393768 31.667503 -2200.000000
54.508892 22.578323 -2200.000000
73.558899 14.631775 -2200.000000
85.000000 0.000000 -2200.000000